0.532759 0.393674 0 0 0 1
-0.806678 -0.395839 -0.117406 -0.896031 -0.443946 -0.00643159
0.387407 -0.210475 -0.9 0 0 -1
-0.524189 0.717663 0.126968 -0.558185 0.820845 0.121008
0.896463 -0.0357121 0.0281644 0.996498 -0.0417369 0.0724519
-0.774296 -0.241881 0.383636 -0.862199 -0.281412 0.421212
0.850774 0.289627 -0.747996 0.944261 0.329175 -0.00394955
-0.786489 0.429347 0.05217 -0.867533 0.494177 0.05635
-0.622896 0.357953 0.538633 -0.699722 0.370949 0.610561
-0.298745 -0.140089 0.834268 -0.313371 -0.151138 0.937526
0.221434 -0.802485 0.336543 0.25742 -0.901389 0.348184
-0.166931 0.88345 -0.67402 -0.199463 0.979854 -0.0100231
0.209885 -0.000145272 0.0893828 0 1 0
-0.713068 -0.547505 -0.607643 -0.796148 -0.604899 0.0157037
-0.719161 -0.538578 -0.158862 -0.788522 -0.614387 -0.0275981
-0.89392 -0.0970251 -0.536073 -0.997586 -0.0681862 -0.0131363
-0.79509 0.0387506 0.416757 -0.896887 -0.00591541 0.44222
0.815913 0.376909 -0.48393 0.905203 0.424945 0.00544415
0.495055 -0.750246 -0.241837 0.551006 -0.834358 -0.0154366
0.0362265 -0.885426 0.142692 0.0425592 -0.982728 0.180093
0.461177 -0.572464 0.516026 0.479884 -0.634496 0.605909
0.103135 -0.000145272 0.541158 0 1 0
0.71401 -0.545552 -0.473939 0.783653 -0.621026 0.0146658
0.61312 -0.580245 0.306501 0.698787 -0.638696 0.322125
0.362253 0.426652 0 0 0 1
0.26311 -0.859785 -0.582023 0.321421 -0.946936 -0.00109275
0.163272 -0.884537 -0.605633 0.163071 -0.98653 -0.0128722
0.815083 0.379874 -0.226107 0.891655 0.452477 -0.0146835
0.000190891 0.498349 -0.9 0 0 -1
-0.56839 0.696084 -0.351429 -0.602124 0.798288 -0.0135241
0.401659 0.0922644 -0.9 0 0 -1
0.230986 -0.000145272 0.725082 0 1 0
-0.175088 -0.881637 -0.529835 -0.194867 -0.980665 -0.0179577
0.52669 0.43894 0 0 0 1
-0.275636 0.855769 -0.687881 -0.288389 0.957393 -0.0151539
-0.375379 0.816313 -0.441402 -0.395751 0.918311 -0.00925184
0.202279 -0.000145272 0.469528 0 1 0
0.894922 -0.0844689 -0.506059 0.997033 -0.0768848 0.00381075
0.438909 0.784278 -0.634635 0.500945 0.865416 0.0104908
0.522399 -0.731107 -0.42486 0.572044 -0.820185 -0.00792407
-0.849702 -0.29428 -0.0871871 -0.933263 -0.358889 0.0147712
-0.160173 0.435956 -0.9 0 0 -1
0.753922 -0.489143 -0.115027 0.851468 -0.524216 -0.0141073
-0.0702527 -0.879672 0.165807 -0.0660688 -0.98433 0.163492
0 0.598657 0.449485 1 0 0
0 0.500194 0.378573 1 0 0
0 0.148847 0.703426 1 0 0
0.81283 0.383765 -0.506495 0.905203 0.424945 0.00544415
-0.555405 -0.678435 -0.9 0 0 -1
0.250725 -0.366941 -0.9 0 0 -1
0.0309928 0.643968 -0.9 0 0 -1
0.470484 -0.766506 -0.360498 0.50411 -0.863588 -0.00937439
0.487807 0.704832 -0.9 0 0 -1
-0.649227 0.621391 -0.682348 -0.714044 0.700042 0.00906077
0.182247 -0.880681 -0.157596 0.236529 -0.971585 0.0088123
-0.614094 -0.648379 0.0851355 -0.671086 -0.73474 0.0989984
-0.115688 -0.891685 -0.436356 -0.127465 -0.991741 -0.0142343
0.0708595 0.895916 -0.767921 0.114314 0.99329 0.0175238
-0.471759 0.530164 -0.9 0 0 -1
0.0748929 0.895332 -0.471938 0.0843385 0.996247 -0.019464
0 0.397577 0.50361 1 0 0
-0.657437 0.612297 -0.0454648 -0.732726 0.680499 0.00588562
-0.417587 0.386233 0.694355 -0.462237 0.406271 0.788214
-0.769261 0.464779 -0.520018 -0.868734 0.495012 0.0162399
-0.852262 0.285676 -0.341104 -0.946196 0.323483 0.0085091
-0.742431 0.506396 -0.145745 -0.810013 0.586366 0.00739028
0.241344 -0.630661 0.591734 0.258007 -0.695422 0.670686
0.124799 -0.232164 0.857866 0.139295 -0.226741 0.963943
0.442747 -0.782698 -0.150549 0.515504 -0.856816 -0.0110157
0.540906 -0.718205 -0.229954 0.600021 -0.799893 0.0120633
0.598409 -0.663683 0.084885 0.650213 -0.754727 0.0872399
0.234755 -0.215928 -0.9 0 0 -1
0.43708 -0.785641 -0.764826 0.507304 -0.861667 -0.0131421
0.0783387 -0.000145272 0.887634 0 1 0
-0.520168 0.166978 0.711396 -0.56829 0.177604 0.803432
-0.526531 -0.444729 0.574886 -0.573646 -0.478622 0.664719
0.816209 -0.207301 -0.9 0 0 -1
-0.0629296 -0.897207 -0.756205 -0.115073 -0.993232 0.0157429
-0.0994606 0.666727 0.593559 -0.141605 0.716035 0.68355
0.869768 -0.226286 -0.607607 0.968998 -0.247046 0.00335434
0.765981 -0.348546 0.311695 0.869078 -0.368931 0.329536
0.571927 0.691538 -0.895512 0.64895 0.760346 -0.0271706
0.681644 -0.0967707 0.575769 0.739713 -0.11573 0.662896
0.243243 -0.334788 -0.9 0 0 -1
-0.826492 0.238112 0.257509 -0.907625 0.296832 0.296829
0.792466 -0.362531 -0.9 0 0 -1
0.45783 -0.515097 -0.9 0 0 -1
-0.0667405 0.35058 -0.9 0 0 -1
0 0.222821 0.598182 1 0 0
0.368578 0.600745 -0.9 0 0 -1
0.609423 -0.66057 -0.583307 0.683884 -0.729485 -0.0124722
-0.404936 -0.802404 -0.172307 -0.450312 -0.892855 0.00536952
-0.794952 0.41313 0.0640999 -0.867533 0.494177 0.05635
0 0.34437 0.0172122 1 0 0
-0.407183 -0.0627973 0.796917 -0.44997 -0.0676768 0.890475
0.765977 0.262072 0 0 0 1
0.680835 -0.238468 0.534344 0.778904 -0.255022 0.57295
0 0.172654 0.7874 1 0 0
-0.653528 0.299409 -0.9 0 0 -1
-0.170282 0.246783 -0.9 0 0 -1
-0.111113 0.210316 -0.9 0 0 -1
0.596185 -0.671866 -0.892831 0.654182 -0.756268 0.0102001
-0.245375 0.864954 -0.217414 -0.306636 0.951795 -0.00772872
0.342566 0.830918 -0.648402 0.404661 0.914355 0.014323
-0.775638 0.343554 0.292102 -0.859982 0.393013 0.325533
-0.519809 0.733136 -0.0204836 -0.606893 0.794717 0.0102712
0.0235403 0.453777 -0.9 0 0 -1
0.529428 -0.0683114 0.721345 0.585316 -0.0618063 0.808446
0.897952 0.0323387 -0.877106 0.999075 0.0407136 -0.0138745
0 0.128159 0.439788 1 0 0
0.797523 -0.0879629 0.404149 0.864288 -0.120869 0.488258
-0.720767 -0.298125 0.445365 -0.826826 -0.311286 0.468465
0.656868 -0.602118 0.104971 0.730099 -0.676697 0.09506
0.723727 -0.176948 0.500889 0.819887 -0.161919 0.549151
-0.069911 0.187098 0.874876 -0.0689627 0.210161 0.975232
-0.317779 -0.830995 0.123668 -0.321463 -0.938967 0.122481
0.660952 0.608694 -0.825268 0.746011 0.665811 0.012761
0.434013 0.787098 -0.777473 0.448487 0.893718 0.0112595
-0.830766 -0.344552 -0.788243 -0.928496 -0.371108 0.0131591
-0.398433 -0.741222 0.310874 -0.429149 -0.832927 0.349377
-0.52466 -0.581082 0.439051 -0.601219 -0.64909 0.466066
0.863073 0.248954 -0.82079 0.966796 0.255361 0.00984561
0.689509 0.575882 -0.699285 0.770263 0.637662 -0.00904557
-0.605301 0.644715 0.151434 -0.688653 0.704122 0.173116
0.59455 0.0247426 0 0 0 1
-0.133233 0.223277 -0.9 0 0 -1
0.0770589 0.895344 -0.885603 0.13293 0.99089 -0.0215982
0.605327 0.0657374 -0.9 0 0 -1
0.730087 -0.522994 0.000955127 0.801028 -0.596946 0.0448228
-0.718677 0.511408 0.164185 -0.805957 0.560335 0.190939
0.0579195 -0.792846 0.418455 0.101153 -0.877817 0.468193
-0.766114 -0.310582 -0.9 0 0 -1
-0.898258 0.037613 -0.309284 -0.999954 0.00299024 0.00911505
-0.213493 0.0887309 -0.9 0 0 -1
0 0.0521225 0.0833364 1 0 0
0 0.447033 0.0484342 1 0 0
-0.0911433 0.816237 0.362601 -0.0584209 0.902222 0.427298
-0.21784 0.820147 0.292387 -0.254164 0.898916 0.356862
0.514853 0.736857 -0.536091 0.592946 0.805049 -0.0176589
-0.492309 -0.723109 -0.9 0 0 -1
-0.12159 0.89033 -0.856639 -0.138168 0.990407 -0.00204592
-0.55281 -0.284499 -0.9 0 0 -1
-0.597145 0.366458 0.560642 -0.664348 0.415087 0.621566
0.041427 0.868319 -0.9 0 0 -1
-0.591056 0.67714 -0.0953944 -0.682667 0.730658 0.0102419
-0.190198 0.877792 -0.267841 -0.216926 0.976099 -0.0131756
-0.0328826 -0.897744 -0.241897 -0.0543059 -0.998519 0.00316033
-0.459822 0.494565 -0.9 0 0 -1
-0.873612 -0.214541 -0.122126 -0.958808 -0.283837 -0.0110796
-0.540613 0.533245 0.478721 -0.619474 0.592397 0.51509
-0.80467 0.202866 -0.9 0 0 -1
0.303467 0.795826 0 0 0 1
0.482985 0.757586 -0.725982 0.54082 0.841073 -0.0105109
-0.365878 -0.821118 -0.50211 -0.383071 -0.923711 0.00378929
-0.814623 -0.0644774 0.371694 -0.899355 -0.0425659 0.435143
-0.47458 0.681766 -0.9 0 0 -1
-0.296912 0.476774 0.700148 -0.331688 0.55318 0.764182
0.828503 -0.0385212 -0.9 0 0 -1
0.143381 0.122338 -0.9 0 0 -1
0.0231688 0.897529 -0.899369 0.0139848 0.999818 -0.013001
-0.0624469 0.11398 0.887796 -0.0608912 0.118535 0.991081
0.694652 -0.570521 -0.832288 0.801421 -0.598089 -0.00366673
0.870646 0.222579 -0.257253 0.975044 0.221921 -0.0063399
0.884081 -0.112063 0.109368 0.991176 -0.105961 0.0796401
-0.471262 0.764873 -0.660604 -0.512461 0.858685 0.00666532
0.394446 0.80602 -0.0190849 0.419234 0.907486 0.0266923
-0.734104 0.441529 0.268074 -0.835325 0.478414 0.270836
-0.349574 -0.284955 0.776221 -0.379135 -0.350981 0.856194
0.502835 -0.000145272 0.372666 0 1 0
0.357025 -0.78233 -0.9 0 0 -1
-0.899071 -0.022434 -0.10288 -0.997458 -0.071241 -0.0013955
-0.363722 -0.541767 0.61607 -0.394364 -0.612918 0.684696
0 0.830365 0.245655 1 0 0
-0.0245613 -0.859441 0.258649 -0.0416972 -0.949123 0.312133
-0.0436028 -0.897217 -0.259468 -0.0543059 -0.998519 0.00316033
0.858048 0.057989 0 0 0 1
-0.515942 -0.73621 -0.0425188 -0.587501 -0.809221 -0.00182312
0.479226 0.515514 0 0 0 1
-0.87209 -0.219216 -0.147313 -0.969076 -0.246186 -0.0168324
0.897382 -0.0534422 -0.861685 0.9978 -0.0640844 -0.0169826
-0.0930625 -0.893702 -0.751473 -0.110503 -0.993867 0.00410767
-0.80513 -0.399475 -0.55224 -0.901418 -0.432574 -0.0180216
0.0643503 -0.260359 0.85603 0.076409 -0.30851 0.948147
-0.628812 0.561989 0.307286 -0.691664 0.633043 0.347645
-0.637678 -0.566019 0.280246 -0.72638 -0.602492 0.33072
-0.836624 -0.0389529 0.322846 -0.925313 -0.0673211 0.37318
0.791542 0.425633 -0.414189 0.888266 0.459102 0.0144809
0.352734 -0.708488 -0.9 0 0 -1
-0.854325 0.276713 -0.567834 -0.946067 0.323546 0.0165802
-0.230899 -0.866242 0.0344835 -0.271803 -0.961115 0.0487858
-0.270328 0.857288 -0.0991043 -0.270739 0.962603 -0.00981716
-0.760713 0.47731 -0.0693435 -0.852392 0.522811 -0.00978345
-0.664868 0.604374 -0.880405 -0.745617 0.666304 0.00971936
0 0.367041 0.240847 1 0 0
0.225723 0.870133 -0.75617 0.216595 0.976209 0.0100894
0.4574 0.597292 0 0 0 1
-0.403768 -0.659106 0.45579 -0.455546 -0.744181 0.488541
-0.433266 0.1659 -0.9 0 0 -1
-0.471266 0.478764 -0.9 0 0 -1
-0.620904 0.245178 0.600684 -0.717522 0.28096 0.637356
0.614288 0.576099 -0.9 0 0 -1
0.277319 -0.70315 0.485968 0.347122 -0.788167 0.508231
-0.00403194 0.898741 -0.199088 -0.0271269 0.999495 -0.0165199
-0.0370607 0.897953 -0.192498 -0.0271269 0.999495 -0.0165199
-0.751782 0.493264 -0.183594 -0.816202 0.577739 -0.00573233
0.896604 -0.0634361 -0.810089 0.995709 -0.0921883 0.00811243
-0.588754 0.679074 -0.232806 -0.631828 0.775057 0.00888284
0 0.88195 0.162803 1 0 0
-0.35104 0.545621 -0.9 0 0 -1
0.480582 -0.696224 -0.9 0 0 -1
-0.0238961 -0.297728 -0.9 0 0 -1
-0.658698 0.6113 -0.596838 -0.719294 0.694584 -0.0130189
0.075078 0.115465 0 0 0 1
-0.269193 0.85785 -0.142961 -0.267108 0.963503 0.0177493
0.757219 -0.485113 -0.308144 0.823954 -0.566657 -0.000464627
-0.872432 -0.216819 -0.162647 -0.969076 -0.246186 -0.0168324
0.50596 -0.742662 -0.111119 0.568171 -0.822798 0.0136359
-0.89118 -0.114292 -0.753332 -0.990372 -0.138194 0.00814
-0.340256 -0.213901 0.802063 -0.382431 -0.238803 0.892592
-0.701941 0.221078 0.513767 -0.784302 0.225864 0.577803
-0.624879 -0.190231 0.615173 -0.69422 -0.206185 0.689598
-0.257714 -0.860537 -0.0285454 -0.280209 -0.95978 0.017457
-0.217451 -0.870795 -0.893198 -0.210533 -0.976491 -0.0462641
-0.496071 -0.5986 0.448897 -0.533444 -0.681369 0.501173
0.896949 -0.0615447 -0.0509112 0.998699 -0.047148 0.0194109
-0.316127 -0.0824412 0.836338 -0.385544 -0.0828129 0.918966
-0.898201 0.0324447 -0.353857 -0.997896 0.0644996 -0.00661489
-0.738404 0.206132 0.466929 -0.816487 0.219015 0.534211
0 0.696331 0.121127 1 0 0
-0.869617 -0.220379 0.0368946 -0.975525 -0.216892 0.0361735
0.889892 -0.124213 -0.0257144 0.993337 -0.113729 0.0186262
-0.868606 -0.017574 0.225514 -0.962058 -0.0349536 0.270598
0.36154 -0.415509 0.708471 0.414576 -0.453172 0.789152
0.345914 0.23348 0 0 0 1
-0.872689 0.207036 0.0350967 -0.971264 0.230987 0.0573696
0 0.575669 0.392561 1 0 0
0.58275 -0.482738 0.482855 0.631996 -0.538873 0.556953
0.719181 -0.165712 0.510989 0.819887 -0.161919 0.549151
-0.764668 -0.472978 -0.470378 -0.834872 -0.55043 0.00402606
-0.593776 0.675104 -0.199895 -0.626887 0.779038 -0.0105929
0 0.351087 0.0120477 1 0 0
-0.275402 0.756113 -0.9 0 0 -1
0.625976 -0.644773 -0.325868 0.708982 -0.705117 -0.0124005
0.590706 -0.325035 0.592326 0.645539 -0.358248 0.674491
-0.36866 -0.819782 -0.320048 -0.390931 -0.92042 -0.000506675
0.292506 -0.000145272 0.319434 0 1 0
-0.761131 0.0239242 -0.9 0 0 -1
0.0228068 0.898578 -0.0780714 -0.000672366 0.999972 0.00744526
0.751749 -0.40252 0.28383 0.813085 -0.4906 0.313375
0.00377924 -0.0111498 -0.9 0 0 -1
0.821105 0.366018 -0.122911 0.914451 0.404521 -0.0118965
0.312146 -0.700997 0.465519 0.347122 -0.788167 0.508231
0.121664 0.166106 0 0 0 1
-0.690173 0.556606 -0.9 0 0 -1
-0.284466 -0.22851 -0.9 0 0 -1
0.575131 -0.000145272 0.38375 0 1 0
-0.750317 0.49452 -0.443257 -0.827823 0.560985 0.00201039
0.635267 0.0421014 0 0 0 1
-0.234255 -0.868332 -0.586925 -0.308905 -0.951075 0.00578502
0.893856 -0.0892372 -0.0235688 0.993337 -0.113729 0.0186262
0.372458 -0.000145272 0.773843 0 1 0
0.640036 -0.631022 -0.679395 0.70952 -0.704591 -0.0115161
-0.162978 -0.130597 -0.9 0 0 -1
0.512371 0.738185 -0.862814 0.560663 0.827711 -0.0234865
-0.173602 0.429606 0.768785 -0.203731 0.448973 0.87001
-0.421246 0.340737 -0.9 0 0 -1
-0.423573 -0.0733101 -0.9 0 0 -1
-0.515272 -0.315301 -0.9 0 0 -1
0 0.127116 0.778689 1 0 0
0 0.377309 0.441116 1 0 0
0.0686195 -0.000145272 0.172189 0 1 0
0.026952 -0.614174 0.656037 -0.0242953 -0.66318 0.748066
-0.552029 -0.204357 0.676964 -0.598778 -0.222448 0.769404
-0.796082 0.417482 -0.27088 -0.871071 0.491156 -0.00110015
0.402309 0.00250927 0 0 0 1
-0.354285 0.550193 0.61525 -0.364627 0.600302 0.711818
0.751774 -0.493568 -0.675349 0.824092 -0.566276 -0.014291
0.674377 0.409554 0 0 0 1
-0.38456 -0.247801 -0.9 0 0 -1
-0.500304 0.640609 -0.9 0 0 -1
0.263094 -0.000145272 0.0390875 0 1 0
0.89877 -0.0125223 -0.143704 0.999191 -0.0402078 0.000267023
0.449565 0.135353 -0.9 0 0 -1
-0.591566 0.67689 -0.342544 -0.688446 0.724521 -0.0333386
-0.728145 -0.527268 -0.592513 -0.796148 -0.604899 0.0157037
-0.142393 0.887122 -0.432239 -0.166737 0.985918 0.0128389
0.660695 -0.607041 -0.9 0 0 -1
-0.339768 0.583311 -0.9 0 0 -1
-0.114652 -0.354432 0.817963 -0.0798102 -0.380885 0.921172
0.742787 0.506439 -0.455495 0.808448 0.588457 0.0114183
0.387062 0.810497 -0.517747 0.43553 0.900173 -0.00118907
0 0.556455 0.0716974 1 0 0
-0.701467 -0.563181 -0.623359 -0.796148 -0.604899 0.0157037
-0.25625 0.624859 0.592495 -0.323324 0.688735 0.648926
0.796236 -0.417196 -0.488018 0.885975 -0.463688 -0.00649144
-0.0996004 0.892764 -0.321679 -0.0986165 0.995055 0.0118649
-0.615384 -0.655159 -0.0953813 -0.676358 -0.73645 -0.0135042
0.260334 -0.838303 0.187864 0.284743 -0.9285 0.238345
-0.13171 -0.546569 0.699732 -0.162985 -0.600398 0.782916
-0.836089 -0.190822 0.26572 -0.941659 -0.193405 0.275452
0.85355 0.283404 -0.487368 0.961515 0.274698 0.00537348
0.70177 -0.000145272 0.381234 0 1 0
0.734808 -0.517465 -0.364691 0.824914 -0.56524 -0.00465566
0.840057 -0.215069 -0.9 0 0 -1
0.835537 0.284398 0 0 0 1
0.811193 0.386126 -0.561343 0.892283 0.451159 0.0169439
0.254527 -0.558982 0.654582 0.292714 -0.619074 0.728742
-0.0551327 -0.430707 -0.9 0 0 -1
0.458034 -0.476018 0.607801 0.530214 -0.540661 0.653115
0.896114 -0.0714282 -0.165144 0.993438 -0.114054 -0.00850297
-0.875692 -0.200175 -0.277182 -0.979572 -0.199999 -0.0209407
-0.739091 0.504471 0.0665716 -0.81622 0.569956 0.0945218
-0.436171 0.584428 0.523098 -0.481043 0.649469 0.588887
0.368778 -0.000145272 0.225665 0 1 0
-0.0440078 -0.55647 -0.9 0 0 -1
-0.147671 0.101882 -0.9 0 0 -1
-0.689427 0.570494 0.0715238 -0.790819 0.605491 0.0893673
0.0363277 -0.0415757 0.896211 0.0653547 -0.0338998 0.997286
0.290459 -0.850504 -0.769509 0.317672 -0.948149 -0.00986208
0.588408 -0.000145272 0.554356 0 1 0
0.892997 0.100804 -0.00140307 0.991426 0.130515 0.00627785
-0.299697 0.81944 0.21002 -0.336029 0.920438 0.199698
0.414877 -0.797506 -0.730991 0.437818 -0.898988 -0.0116535
-0.176098 0.880656 -0.771165 -0.212361 0.976952 -0.0216228
0.81404 -0.282986 0.24943 0.913957 -0.310116 0.261747
0.874472 -0.207364 -0.0373435 0.976877 -0.21271 0.0215839
-0.348795 0.827704 -0.364977 -0.359274 0.933045 -0.0186904
-0.377291 0.815174 -0.0152145 -0.423971 0.905269 0.0271334
-0.730406 -0.524459 -0.693336 -0.817107 -0.576244 0.0166821
0 0.518312 0.121489 1 0 0
-0.714361 0.206807 0.502488 -0.784302 0.225864 0.577803
0.208119 0.00420226 0 0 0 1
-0.0707608 -0.896312 -0.843838 -0.0513011 -0.998641 0.00914263
0.699796 0.563193 -0.368877 0.775657 0.630989 0.0144719
0.0123752 -0.000145272 0.88821 0 1 0
0.794721 -0.336766 -0.9 0 0 -1
0 0.487527 0.659733 1 0 0
0.272474 -0.364418 -0.9 0 0 -1
0.726623 0.526686 -0.9 0 0 -1
0.128712 0.403729 0 0 0 1
0.781216 -0.445013 -0.154527 0.876255 -0.481491 -0.0185281
-0.819782 0.367808 -0.0946084 -0.898956 0.437781 -0.0150019
0.890988 -0.120578 -0.273496 0.993667 -0.112165 0.00673353
-0.0148741 0.799003 -0.9 0 0 -1
-0.779078 0.447638 -0.827454 -0.871165 0.490968 0.00465989
0 0.522289 0.653552 1 0 0
-0.250111 0.863578 -0.490439 -0.314141 0.94937 0.00330818
0.564032 -0.306492 0.627618 0.652398 -0.318376 0.68776
-0.0841622 -0.234044 0.86262 -0.0952411 -0.286263 0.953406
0.457737 -0.310294 -0.9 0 0 -1
-0.826233 0.34146 0.0780122 -0.915687 0.390196 0.0962546
-0.306527 0.8405 0.0610674 -0.334906 0.938843 0.0800696
0.45521 0.0911849 0 0 0 1
0.183724 -0.876695 0.0620264 0.212157 -0.971245 0.108044
-0.0249535 -0.798768 -0.9 0 0 -1
0 0.794631 0.391436 1 0 0
0.651423 -0.618713 -0.123959 0.725734 -0.687804 0.0153678
-0.630006 -0.435979 0.466152 -0.707148 -0.479019 0.52008
0.640449 -0.280273 0.563352 0.733193 -0.307369 0.60659
-0.0814271 0.89485 -0.546682 -0.110611 0.993842 -0.00654194
-0.754247 -0.486877 -0.00467236 -0.842685 -0.538106 0.0179734
0.625088 0.326625 0 0 0 1
-0.888057 -0.140416 -0.259768 -0.98903 -0.147549 0.00693147
-0.161972 0.600981 0.646491 -0.179147 0.691084 0.70022
0.382737 0.185558 0 0 0 1
-0.210402 0.632044 -0.9 0 0 -1
-0.615704 0.49007 0.432277 -0.706922 0.526221 0.472602
-0.356853 0.825249 -0.0746019 -0.37075 0.928674 -0.0104408
0.0932902 -0.000145272 0.392169 0 1 0
0.0299798 0.898309 -0.756809 -0.00833566 0.999965 -0.000191949
0.330798 -0.0898293 -0.9 0 0 -1
-0.572535 0.692035 -0.737812 -0.621407 0.783211 -0.0208203
-0.731329 -0.499759 0.145625 -0.812491 -0.567289 0.134324
-0.405021 0.80146 -0.888533 -0.422455 0.906288 -0.0131679
-0.502988 0.502626 -0.9 0 0 -1
0.626843 0.643187 -0.892597 0.710063 0.703825 -0.0209921
-0.355914 0.824646 -0.225048 -0.395078 0.918605 0.00885058
0.526874 -0.40357 0.603629 0.586619 -0.446667 0.675549
0 0.446524 0.451952 1 0 0
0.697673 0.567367 -0.0169662 0.780908 0.624519 -0.0125938
0.425444 0.791947 -0.514748 0.42963 0.90293 0.0116668
0.427069 -0.791084 -0.361498 0.489735 -0.871815 0.00987089
0.159144 -0.000145272 0.416035 0 1 0
0.764227 0.473557 -0.699692 0.860088 0.510097 0.00701419
0 0.244315 0.174949 1 0 0
0.0170324 -0.227369 -0.9 0 0 -1
0.161997 0.72209 -0.9 0 0 -1
0.466437 -0.695149 0.324563 0.53946 -0.766918 0.34759
0 0.137618 0.588358 1 0 0
0.192143 -0.000145272 0.28134 0 1 0
0 0.707849 0.473646 1 0 0
0.897439 0.0506893 -0.381417 0.998768 0.0494691 0.00384426
-0.277466 0.854588 -0.763163 -0.293685 0.95585 0.0100237
-0.652343 -0.602869 0.129528 -0.745256 -0.649142 0.15234
-0.0952503 0.0737472 -0.9 0 0 -1
0.891401 -0.114245 -0.864096 0.985661 -0.168308 -0.0120201
-0.178158 -0.142758 -0.9 0 0 -1
-0.295023 -0.429402 -0.9 0 0 -1
0.0274974 0.287244 0 0 0 1
0 0.416341 0.0248593 1 0 0
-0.673324 0.594571 -0.54202 -0.738255 0.674395 0.0130759
-0.586624 0.120137 -0.9 0 0 -1
-0.67583 -0.571563 0.148028 -0.745256 -0.649142 0.15234
0.795501 -0.419717 -0.737682 0.866126 -0.49981 0.00383707
0.387711 0.808854 -0.00966813 0.419234 0.907486 0.0266923
-0.605932 -0.664217 -0.842476 -0.702741 -0.711348 0.0117804
0.509897 0.383604 0 0 0 1
0.109744 -0.000145272 0.513889 0 1 0
-0.31574 0.783461 -0.9 0 0 -1
-0.790089 0.427445 -0.373781 -0.875125 0.483801 0.00960338
-0.835261 -0.332913 -0.6797 -0.916732 -0.399269 0.0136735
-0.0578574 -0.514176 -0.9 0 0 -1
0.418695 0.79487 -0.897895 0.485186 0.874164 -0.0207988
-0.496141 -0.142657 0.734154 -0.542488 -0.171409 0.82239
0.854948 -0.2786 -0.317034 0.938745 -0.344517 0.00805126
0.64611 -0.565636 0.263275 0.732491 -0.608765 0.304733
-0.215154 -0.505195 0.710061 -0.258595 -0.575844 0.775585
0.299849 -0.000145272 0.138362 0 1 0
0.382532 -0.80222 0.124401 0.414326 -0.900699 0.130669
0.343558 -0.682305 0.473051 0.347122 -0.788167 0.508231
0 0.256474 0.259802 1 0 0
-0.838174 -0.324212 -0.275211 -0.924235 -0.381797 0.00461339
-0.613849 -0.656084 -0.495337 -0.682521 -0.730864 -0.00195132
0.816332 0.37508 -0.320126 0.917749 0.396865 0.0153207
-0.0577741 0.878117 0.176229 -0.0576161 0.985742 0.15809
-0.522681 -0.731954 -0.578263 -0.616869 -0.787058 -0.00345294
-0.300302 0.843996 0.0454588 -0.336486 0.94062 0.0448561
0.527903 0.727267 -0.535083 0.592946 0.805049 -0.0176589
-0.694134 0.411685 -0.9 0 0 -1
-0.354031 0.82591 -0.590613 -0.417581 0.908426 -0.019736
0.747694 -0.499349 -0.794253 0.825842 -0.563765 0.0123902
-0.328894 0.665922 0.504426 -0.362312 0.752097 0.550527
-0.791428 0.426167 -0.694827 -0.878208 0.478004 0.016221
0.103378 0.593808 -0.9 0 0 -1
-0.364302 -0.316294 -0.9 0 0 -1
0.769846 -0.292695 0.357848 0.847263 -0.316546 0.426549
-0.517504 -0.129589 -0.9 0 0 -1
0.450784 -0.77657 -0.887429 0.472374 -0.880861 -0.0307749
0.680694 -0.54454 0.21473 0.756062 -0.604826 0.25011
0.212632 -0.850964 0.193353 0.241811 -0.935215 0.258653
-0.876796 -0.0195334 0.191286 -0.974621 0.0136147 0.223446
-0.851523 -0.286457 -0.688597 -0.953865 -0.299856 0.0150895
-0.859973 0.261503 -0.259344 -0.948116 0.317916 -0.00238186
0.575019 0.365202 0 0 0 1
0.438722 -0.293387 0.72614 0.466225 -0.315366 0.826546
0.0653286 -0.81928 0.361719 0.0644237 -0.905842 0.418688
-0.699469 -0.322126 0.460731 -0.757502 -0.370717 0.537363
-0.871687 -0.219629 -0.452503 -0.968012 -0.250453 -0.0150414
-0.43102 0.680441 -0.9 0 0 -1
0.034825 -0.691179 -0.9 0 0 -1
0 0.097769 0.255255 1 0 0
0.182718 0.803965 -0.9 0 0 -1
-0.280171 -0.815774 0.249019 -0.303349 -0.901713 0.308047
-0.836592 -0.327892 -0.4879 -0.933426 -0.358485 -0.0143049
0.114121 -0.0211429 0.889624 0.144149 -0.017371 0.989404
0.8443 0.307904 -0.0408444 0.933541 0.358425 -0.00578324
-0.426577 0.215034 0.759263 -0.483797 0.250609 0.838532
-0.504405 -0.620816 -0.9 0 0 -1
-0.753036 0.332306 0.357832 -0.851061 0.349746 0.391627
-0.661798 0.58952 0.143915 -0.762254 0.633219 0.134174
0.389681 0.662665 0 0 0 1
0.441776 -0.783212 -0.280915 0.48525 -0.874311 -0.010668
-0.860524 0.0412331 0.25297 -0.950686 0.0779977 0.300188
0.0589726 0.896834 -0.865839 0.0778541 0.99689 0.0122285
0.737737 0.384507 -0.9 0 0 -1
-0.896657 -0.0625858 -0.216601 -0.998303 -0.0582336 -0.000334414
0.127705 0.249052 -0.9 0 0 -1
0.0156822 0.898629 -0.649467 0.0248121 0.999649 -0.00929808
0.201303 -0.175755 -0.9 0 0 -1
0.233671 -0.868704 -0.0516631 0.301824 -0.953325 0.00863111
-0.191502 -0.872559 0.0903126 -0.218595 -0.966264 0.1362
-0.3719 0.817916 -0.502722 -0.404763 0.914421 0.00138424
-0.897726 0.0462704 -0.0853468 -0.999543 0.0295988 -0.00616591
-0.0347461 0.784583 0.43531 -0.0258797 0.894782 0.445752
-0.592051 -0.608097 0.291878 -0.655049 -0.681786 0.325698
0.450795 -0.594727 0.499675 0.485175 -0.685549 0.542797
-0.681986 0.296341 -0.9 0 0 -1
-0.836937 -0.0248175 0.323434 -0.943276 -0.0144279 0.331696
0.483821 -0.478908 -0.9 0 0 -1
-0.600871 -0.635045 0.206469 -0.702637 -0.669543 0.240861
0.666956 0.524303 0 0 0 1
-0.74416 0.191556 0.464108 -0.816487 0.219015 0.534211
0.251052 -0.863551 -0.614022 0.235237 -0.971896 -0.00903152
0.572014 0.0861191 0 0 0 1
0.0394537 -0.897527 -0.270337 0.0547445 -0.998483 -0.00596397
-0.354452 -0.28787 0.772866 -0.379135 -0.350981 0.856194
0.01861 0.061651 -0.9 0 0 -1
0.47702 -0.224882 -0.9 0 0 -1
-0.647959 -0.616358 0.0683768 -0.706174 -0.705536 0.059475
-0.786728 -0.165733 0.399479 -0.857046 -0.192399 0.477969
-0.16561 -0.869842 0.145595 -0.180294 -0.971555 0.153542
0.100104 -0.42276 0.785452 0.0993178 -0.440701 0.892143
-0.476751 -0.718512 0.248437 -0.528194 -0.797523 0.291493
-0.483988 0.228311 0.720202 -0.550225 0.234675 0.801361
0.85398 -0.278873 -0.0145501 0.947419 -0.318205 0.0338044
0.266465 0.164983 -0.9 0 0 -1
-0.204456 0.0154514 0.873159 -0.233794 0.0092105 0.972243
-0.513331 -0.487935 0.551901 -0.574538 -0.572628 0.58481
-0.861639 0.254679 -0.504049 -0.958605 0.284545 0.0105014
0.793072 0.0145696 -0.9 0 0 -1
0.322778 -0.355972 -0.9 0 0 -1
-0.892994 -0.0941403 0.0129278 -0.992077 -0.121643 0.031417
0.676738 -0.59171 -0.110837 0.725734 -0.687804 0.0153678
-0.0793747 0.895258 -0.182256 -0.0614437 0.998049 0.0110569
0.215023 -0.873477 -0.464017 0.215621 -0.97637 0.0144893
-0.464463 0.543468 0.543571 -0.536813 0.622005 0.570037
-0.897767 -0.0227272 -0.362175 -0.999626 -0.0224575 0.0155774
0.676254 0.592569 -0.540855 0.745829 0.666036 -0.0116226
-0.0830649 0.382748 -0.9 0 0 -1
-0.399852 0.805166 -0.212802 -0.470561 0.882257 0.0139661
-0.68463 0.0126449 0.581464 -0.741522 -0.0198967 0.670633
-0.131658 0.822689 0.332513 -0.171176 0.912222 0.372223
0.252298 -0.825128 0.248791 0.284743 -0.9285 0.238345
-0.891703 0.114273 -0.85349 -0.993496 0.113208 0.0122613
-0.601021 0.667855 -0.629887 -0.659562 0.75165 -0.00075505
-0.158468 0.562028 0.681158 -0.169732 0.643906 0.74604
0.448006 0.779251 -0.481096 0.525231 0.850741 -0.0192921
0.233541 -0.867672 -0.686866 0.255971 -0.966651 -0.00800452
0.879228 -0.184098 -0.407254 0.977165 -0.211118 -0.0240194
0.0226043 -0.270586 0.85546 0.00172948 -0.315628 0.948882
0.196173 0.667344 -0.9 0 0 -1
-0.775548 -0.454585 -0.470154 -0.880089 -0.474758 -0.00688148
0.0083226 0.345253 0 0 0 1
-0.327149 0.836578 -0.136819 -0.376118 0.926532 0.00862477
0.13569 0.888732 -0.681075 0.197386 0.98023 0.0136809
-0.816336 -0.37676 -0.0888187 -0.896031 -0.443946 -0.00643159
0.472692 -0.11206 -0.9 0 0 -1
-0.811615 0.385646 -0.231662 -0.912756 0.408383 0.0099903
-0.0523408 -0.794092 0.416136 -0.0480777 -0.865786 0.498099
-0.761954 -0.475304 -0.0194808 -0.842685 -0.538106 0.0179734
0.808197 -0.000145272 0.0790122 0 1 0
0.42019 -0.794787 -0.216878 0.456191 -0.889682 -0.0188392
0.423287 0.563813 -0.9 0 0 -1
0.700794 -0.562308 -0.37935 0.771954 -0.635658 0.0050559
0.41621 0.615021 -0.9 0 0 -1
0.217499 -0.872835 -0.895786 0.2832 -0.95903 -0.00767502
-0.675728 0.1011 0.583298 -0.735762 0.0665686 0.673961
-0.497188 -0.748689 -0.633231 -0.536097 -0.844149 -0.0034851
-0.17529 -0.306079 0.825754 -0.179127 -0.335313 0.924921
0.822747 -0.362747 -0.551015 0.925215 -0.379404 0.00538216
0.507737 -0.000145272 0.706224 0 1 0
-0.198025 -0.686189 0.543599 -0.230037 -0.781169 0.580395
0.389336 -0.810218 -0.421413 0.423257 -0.905958 0.00969868
-0.134189 0.4346 -0.9 0 0 -1
-0.413371 0.400042 0.689188 -0.492254 0.439365 0.751428
-0.273569 0.726907 0.450194 -0.296991 0.829986 0.472144
-0.584543 -0.682825 -0.862962 -0.668509 -0.743173 -0.0281046
-0.881163 -0.177315 -0.340132 -0.980582 -0.195453 0.0160039
-0.349406 0.7106 -0.9 0 0 -1
-0.222866 0.281781 0.822077 -0.263583 0.295871 0.918142
-0.771238 -0.280454 0.364124 -0.862199 -0.281412 0.421212
0.545022 0.157935 -0.9 0 0 -1
-0.898955 -0.0192476 -0.767016 -0.997871 -0.0646585 0.00847208
-0.165903 -0.882724 -0.267726 -0.162805 -0.98648 0.0187457
-0.616132 -0.495575 0.424098 -0.665723 -0.557975 0.495455
0.269289 -0.257954 0.816655 0.266275 -0.289611 0.91936
0.740891 -0.270422 0.430863 0.795361 -0.32544 0.511361
-0.406436 -0.00569534 0.800013 -0.463986 0.00753243 0.88581
0.546013 -0.284574 0.653248 0.624721 -0.290587 0.724764
0.445746 -0.000145272 0.301641 0 1 0
-0.73978 -0.340895 0.37723 -0.81802 -0.406525 0.406916
0.538749 0.156581 0 0 0 1
0.895382 -0.0792271 -0.854882 0.995579 -0.0938047 0.00481484
0.357226 -0.824331 -0.803204 0.408051 -0.91283 -0.0153707
0.784171 -0.0503319 0.432583 0.86602 -0.0652062 0.49574
0 0.100689 0.768041 1 0 0
-0.726176 -0.530044 -0.726073 -0.790846 -0.611881 0.01282
-0.808301 0.0430034 0.387921 -0.913456 0.045434 0.404393
-0.344585 -0.263635 -0.9 0 0 -1
-0.576637 0.605082 0.327633 -0.65158 0.661584 0.371147
-0.843406 -0.117641 0.284392 -0.949046 -0.133879 0.285288
-0.771566 -0.461576 -0.360526 -0.844936 -0.534777 0.00982921
-0.131759 -0.476145 0.749429 -0.182798 -0.524398 0.83162
0.125916 0.0675441 0 0 0 1
0.890622 -0.0751719 0.0757091 0.9947 -0.0555136 0.0865476
-0.808165 0.394439 -0.282764 -0.915044 0.403349 0.00177995
0.39819 0.37661 -0.9 0 0 -1
0.182269 0.8793 -0.677294 0.197386 0.98023 0.0136809
0.0563494 0.888842 0 0 0 1
0.111916 -0.0633401 -0.9 0 0 -1
0.754619 0.487677 -0.738049 0.829058 0.558992 0.0138038
-0.0324501 -0.898387 -0.393635 -0.0695699 -0.997467 -0.0147932
-0.882005 -0.167199 0.0216763 -0.975525 -0.216892 0.0361735
-0.645416 -0.544054 0.303263 -0.72638 -0.602492 0.33072
-0.816996 0.374355 -0.271611 -0.915044 0.403349 0.00177995
-0.736786 0.514447 -0.639122 -0.823681 0.566853 -0.0150979
-0.127751 0.889529 -0.765541 -0.114545 0.993393 -0.00711991
-0.0571508 -0.498915 0.743779 -0.0789812 -0.563947 0.822025
0.675649 -0.323639 0.494666 0.759517 -0.365692 0.537963
0.398577 -0.000145272 0.291165 0 1 0
-0.651668 -0.565703 -0.9 0 0 -1
-0.247759 0.425582 0.750252 -0.281066 0.487848 0.826442
-0.800312 0.0569856 -0.9 0 0 -1
-0.465321 0.769277 -0.470512 -0.476946 0.878823 -0.0138815
-0.570739 0.00557639 -0.9 0 0 -1
0 0.161408 0.196019 1 0 0
-0.873702 0.211836 -0.634976 -0.975906 0.217858 0.0120695
-0.145981 0.592613 0.657601 -0.169732 0.643906 0.74604
-0.643554 -0.628527 -0.763315 -0.678879 -0.73425 -0.000417392
-0.55169 -0.447577 0.547821 -0.623781 -0.484575 0.613257
0.443794 -0.781523 -0.0077827 0.467544 -0.882937 0.0427294
0.78598 -0.437069 -0.112598 0.88147 -0.472043 0.013632
-0.246826 0.863977 -0.42754 -0.264589 0.964295 0.0113298
0.0186701 -0.899439 -0.690405 -0.00842381 -0.999886 -0.0125518
0 0.110767 0.612776 1 0 0
-0.828825 0.291323 0.186576 -0.927607 0.328982 0.176961
-0.23196 -0.665639 -0.9 0 0 -1
0.554463 -0.29824 -0.9 0 0 -1
0 0.799085 0.231736 1 0 0
-0.480698 0.662556 -0.9 0 0 -1
0.496543 -0.559212 -0.9 0 0 -1
0.593361 -0.648452 0.183926 0.6784 -0.713081 0.176887
0.736221 -0.51516 -0.394155 0.824914 -0.56524 -0.00465566
-0.325435 -0.0242103 0.836183 -0.348629 -0.0459303 0.936135
-0.866716 -0.0180572 -0.9 0 0 -1
-0.284232 -0.191164 -0.9 0 0 -1
0.334972 -0.000145272 0.203479 0 1 0
-0.881424 -0.176552 -0.346811 -0.980582 -0.195453 0.0160039
0.422646 -0.000145272 0.217092 0 1 0
0.842753 -0.166379 0.263015 0.932813 -0.150917 0.327238
0.406821 -0.739597 0.309641 0.498119 -0.792051 0.352891
0.841241 -0.0678785 -0.9 0 0 -1
-0.345404 -0.793962 0.235825 -0.373699 -0.889291 0.263649
0.809041 -0.000145272 0.0557734 0 1 0
0.84714 -0.300352 -0.756839 0.938061 -0.346466 -0.00168729
0.600354 0.667652 -0.884967 0.64895 0.760346 -0.0271706
-0.898212 0.016754 -0.171632 -0.999499 0.0314911 -0.00331666
0.892612 0.108354 -0.704535 0.997202 0.0744895 0.0062986
-0.608188 -0.661728 -0.399356 -0.654795 -0.755683 0.0136554
0.790127 0.429136 -0.645117 0.860088 0.510097 0.00701419
-0.390987 0.162686 0.79112 -0.459216 0.200884 0.865313
0.137857 0.886892 -0.899186 0.13293 0.99089 -0.0215982
0.415641 0.327416 -0.9 0 0 -1
0.0207628 0.407832 -0.9 0 0 -1
-0.83361 -0.335191 -0.315842 -0.934153 -0.356585 -0.0143009
-0.797035 0.139392 -0.9 0 0 -1
0.73975 -0.386273 0.33082 0.832023 -0.406404 0.377589
-0.401349 0.132283 -0.9 0 0 -1
0.448689 -0.726188 -0.9 0 0 -1
-0.170162 0.882865 -0.215972 -0.226425 0.973964 -0.0111885
0.104025 -0.892785 -0.341705 0.137173 -0.990547 0.000648535
0.206904 -0.0572527 -0.9 0 0 -1
0.785432 0.283816 -0.9 0 0 -1
0.456979 0.773377 -0.527197 0.523621 0.851822 0.0148761
0.514518 0.737131 -0.534858 0.592946 0.805049 -0.0176589
-0.450638 -0.777977 -0.872421 -0.492651 -0.870148 -0.0117186
0.468969 -0.766321 -0.00717493 0.534278 -0.845211 0.0128646
0.474583 -0.605874 0.462151 0.540794 -0.672169 0.505698
0.874257 0.208544 -0.169422 0.975991 0.21781 -0.000660715
0 0.252272 0.74519 1 0 0
-0.193792 -0.694899 0.533554 -0.230037 -0.781169 0.580395
0.742395 -0.506719 -0.245956 0.823954 -0.566657 -0.000464627
-0.707023 -0.554831 -0.583367 -0.796148 -0.604899 0.0157037
0.663253 0.364712 0 0 0 1
0.292098 -0.163473 0.833002 0.360047 -0.199938 0.911258
0.449239 0.77882 -0.856256 0.523431 0.852068 0.0005794
-0.754673 0.376286 -0.9 0 0 -1
0.627633 0.644025 -0.270619 0.724324 0.689442 -0.00496038
-0.606352 -0.663751 -0.239351 -0.692336 -0.721538 -0.00729249
0.597411 -0.671479 -0.530448 0.659384 -0.751658 0.0149377
-0.689287 -0.482779 -0.9 0 0 -1
0.581022 -0.416833 -0.9 0 0 -1
0.678745 -0.586968 0.0385004 0.728606 -0.683565 0.0432672
-0.682514 0.584736 -0.247345 -0.766645 0.642065 0.00281737
-0.833286 -0.337309 -0.675696 -0.916732 -0.399269 0.0136735
0.041713 0.0391307 0 0 0 1
-0.515385 0.485384 0.552028 -0.602553 0.538028 0.589454
0.655783 0.287758 -0.9 0 0 -1
-0.376233 0.189828 -0.9 0 0 -1
0.425397 -0.492788 0.617758 0.485805 -0.553189 0.676739
0.153495 -0.449788 -0.9 0 0 -1
-0.839746 -0.164195 0.271915 -0.941659 -0.193405 0.275452
0.430898 -0.788759 -0.67505 0.498743 -0.866748 -0.00213809
0.34605 -0.000145272 0.321272 0 1 0
-0.00996811 0.601769 -0.9 0 0 -1
-0.455086 -0.548523 0.54662 -0.496443 -0.582465 0.643645
-0.875184 -0.202273 -0.630647 -0.971742 -0.235199 -0.0199779
-0.207107 -0.582868 0.649829 -0.225463 -0.66129 0.715445
-0.803133 -0.402852 -0.585385 -0.903401 -0.428482 0.0163988
0.379244 0.537745 -0.9 0 0 -1
0.359236 -0.000145272 0.277701 0 1 0
-0.46271 -0.427679 -0.9 0 0 -1
-0.861798 -0.256097 -0.473809 -0.950644 -0.309934 0.0147252
-0.628623 -0.634732 0.0799991 -0.706174 -0.705536 0.059475
0.480953 -0.643139 -0.9 0 0 -1
-0.171982 0.686433 0.551424 -0.196747 0.763616 0.614965
-0.741646 0.507639 -0.17797 -0.816202 0.577739 -0.00573233
0.504103 -0.743889 -0.279984 0.555097 -0.831717 0.0107187
0.742353 0.469654 -0.9 0 0 -1
-0.845285 0.305487 -0.408923 -0.940269 0.340344 0.00770085
-0.0901369 0.647349 -0.9 0 0 -1
0 0.670275 0.347828 1 0 0
-0.443931 -0.333612 -0.9 0 0 -1
-0.871609 0.11677 0.178638 -0.974359 0.112044 0.195119
0.636641 0.632918 -0.00465884 0.732944 0.679715 0.0279303
-0.451574 -0.681194 0.371262 -0.506665 -0.772165 0.383473
0.873881 -0.177468 0.103944 0.966598 -0.222385 0.127408
-0.515713 -0.736519 -0.199062 -0.550687 -0.83468 -0.00732741
-0.154467 0.631838 -0.9 0 0 -1
0.235869 -0.867385 -0.798292 0.253601 -0.96723 0.0123927
0.424345 -0.792313 -0.536247 0.481668 -0.87632 0.00772856
0.743235 0.395012 -0.9 0 0 -1
-0.416825 -0.311391 -0.9 0 0 -1
-0.0181515 -0.782063 0.440234 -0.00301345 -0.876565 0.481274
0.634702 -0.613025 0.166203 0.701443 -0.680805 0.210909
0.759706 0.479624 -0.0466605 0.843779 0.536629 -0.008164
0.639578 0.632068 -0.184653 0.740791 0.671593 0.0138392
0.0938013 -0.0278409 0.892138 0.0903876 -0.0513736 0.994581
-0.850678 -0.292009 -0.753695 -0.950105 -0.311743 -0.0108193
0.549488 0.710595 -0.730874 0.621379 0.783446 -0.00999961
0.23002 -0.868923 -0.489123 0.279856 -0.959851 0.0191669
-0.738902 -0.508605 0.0408225 -0.809715 -0.582304 0.0726827
-0.519269 0.734222 -0.397063 -0.540527 0.84121 -0.0140372
0.725957 0.529724 -0.185067 0.809075 0.587539 0.0140212
0.7689 -0.000145272 0.449117 0 1 0
-0.854815 -0.278011 -0.224314 -0.953458 -0.300758 -0.0214789
0.247304 0.635235 -0.9 0 0 -1
0.823155 0.360552 -0.151221 0.914451 0.404521 -0.0118965
-0.777299 -0.452182 -0.412021 -0.880089 -0.474758 -0.00688148
0.209673 -0.874095 -0.106405 0.233386 -0.972339 -0.00942346
0.457647 0.272795 -0.9 0 0 -1
-0.208414 -0.789556 0.374544 -0.259107 -0.854006 0.451151
0.825182 -0.000145272 0.15556 0 1 0
0.384652 -0.3158 0.746724 0.442316 -0.367674 0.818029
-0.897379 0.0597543 -0.531732 -0.999589 0.0275892 0.00772909
-0.0875811 0.191683 -0.9 0 0 -1
-0.416783 -0.796103 -0.611503 -0.462623 -0.886546 -0.00390319
0.78902 0.431264 -0.201456 0.866369 0.499186 0.0147665
0.694 -0.255803 -0.9 0 0 -1
0.380698 -0.000145272 0.13565 0 1 0
0.646234 0.624247 -0.508301 0.721204 0.69264 -0.0107466
0.323956 -0.000145272 0.336195 0 1 0
0.495894 -0.496804 0.558697 0.549445 -0.556208 0.623492
0.414017 0.354332 0 0 0 1
0.522325 -0.732209 -0.234358 0.600021 -0.799893 0.0120633
0.669626 -0.351627 -0.9 0 0 -1
-0.776013 0.0673898 0.445961 -0.855321 0.0700046 0.513348
0.140738 0.432727 -0.9 0 0 -1
-0.514964 0.652725 0.338219 -0.580702 0.731178 0.357999
0.620065 -0.651688 -0.462055 0.721308 -0.692469 0.014229
0.223768 -0.870095 -0.711821 0.260322 -0.965522 -3.65207e-05
-0.87504 0.206422 -0.409409 -0.967013 0.254711 0.0030036
-0.0195977 -0.897599 0.0310065 -0.0638932 -0.996938 0.0450773
0.114601 0.354976 0 0 0 1
0.016668 0.0250923 0 0 0 1
0 0.238165 0.559065 1 0 0
-0.11508 0.710151 0.536207 -0.124019 0.782662 0.609967
-0.625325 0.644199 -0.355865 -0.688446 0.724521 -0.0333386
0.864536 -0.245697 -0.146929 0.961978 -0.27309 -0.00453896
0.683023 -0.000145272 0.256888 0 1 0
0.254599 -0.448805 0.734283 0.272558 -0.501729 0.820963
0.291859 -0.84347 -0.9 0 0 -1
-0.632984 0.637966 -0.594893 -0.719294 0.694584 -0.0130189
0.649164 -0.377743 0.493281 0.749191 -0.4132 0.517666
0.879074 -0.188863 -0.872179 0.98752 -0.15733 0.00715248
0.241902 0.86605 -0.750712 0.303387 0.952864 0.00258164
-0.897786 -0.0392486 -0.163152 -0.997458 -0.071241 -0.0013955
0.480789 -0.000145272 0.545285 0 1 0
0.871501 -0.219645 -0.547572 0.969672 -0.244407 -0.00153756
0.402417 -0.614257 0.517635 0.408734 -0.712976 0.569739
0 0.274781 0.69145 1 0 0
-0.76632 0.0240452 0.465828 -0.857149 0.0254098 0.514441
-0.732244 0.424049 0.299544 -0.836091 0.441919 0.325053
-0.016153 -0.703277 -0.9 0 0 -1
0.651364 -0.191351 0.587328 0.706673 -0.229047 0.669441
0.28999 0.544203 -0.9 0 0 -1
-0.347267 0.828977 -0.571833 -0.405119 0.914261 0.00243365
0.667059 0.602941 -0.117909 0.742805 0.669302 -0.0165897
0.386088 -0.811688 -0.626274 0.413808 -0.910354 -0.00425534
0.556724 0.704136 -0.9 0 0 -1
0.410861 -0.578835 -0.9 0 0 -1
0.891976 -0.114423 -0.523047 0.987058 -0.160363 -0.000507027
-0.583229 0.683482 -0.500342 -0.653424 0.75695 -0.00796215
0.334639 -0.75253 0.356821 0.36827 -0.825985 0.426762
-0.8151 0.378734 -0.28909 -0.915044 0.403349 0.00177995
0.779406 0.447067 -0.824846 0.862357 0.506298 -0.00120209
0.658584 0.0824014 0 0 0 1
0.801465 -0.406581 -0.00605808 0.88142 -0.472299 -0.00568532
0 0.504054 0.596317 1 0 0
0.747299 -0.499562 -0.277136 0.823954 -0.566657 -0.000464627
-0.671936 -0.156563 0.573625 -0.745624 -0.182724 0.640825
0.666023 -0.000145272 0.472601 0 1 0
-0.270862 0.61881 -0.9 0 0 -1
-0.582617 0.684166 -0.759955 -0.621282 0.783456 0.0143295
-0.467344 0.423569 -0.9 0 0 -1
0.607761 0.287315 -0.9 0 0 -1
-0.709982 0.55103 -0.114552 -0.806907 0.590636 -0.00710626
0.580095 -0.68649 -0.638794 0.634833 -0.772604 -0.00838655
-0.46391 -0.769984 -0.773885 -0.539964 -0.841684 -0.00258506
0.0887746 0.894764 -0.161525 0.142644 0.989542 -0.0214257
-0.0545913 -0.733444 -0.9 0 0 -1
-0.895824 -0.0651615 -0.9 0 0 -1
0.895261 -0.0847656 -0.0813963 0.992492 -0.122135 0.00659749
-0.0924969 0.817074 0.360648 -0.0584209 0.902222 0.427298
0 0.69436 0.117549 1 0 0
-0.866731 -0.114722 0.204307 -0.962736 -0.0965486 0.252622
0.692467 -0.572858 -0.330577 0.769179 -0.638984 -0.00795107
0 0.666081 0.564531 1 0 0
-0.894976 0.0806759 -0.370097 -0.997896 0.0644996 -0.00661489
-0.00551193 0.169623 -0.9 0 0 -1
-0.135341 0.889017 -0.574772 -0.165235 0.986164 -0.013332
-0.46355 0.390423 0.661941 -0.492254 0.439365 0.751428
0.812861 -0.383944 -0.580442 0.898876 -0.437938 -0.0152344
-0.749216 -0.496813 -0.0804765 -0.848393 -0.529305 -0.00812665
-0.792333 -0.424715 -0.674334 -0.870698 -0.491582 0.015242
-0.514505 -0.62659 0.386045 -0.586615 -0.706768 0.395425
0.164234 0.553348 0 0 0 1
-0.193306 -0.877124 -0.186051 -0.215707 -0.976383 0.012105
0.546352 -0.601906 0.381022 0.612149 -0.654644 0.443525
-0.256184 0.861004 -0.300979 -0.319232 0.947523 0.0170472
-0.889235 -0.127448 -0.740029 -0.990372 -0.138194 0.00814
-0.808143 0.394204 -0.423087 -0.909438 0.415781 0.00692128
0.147521 -0.855396 -0.9 0 0 -1
-0.417926 0.795313 -0.487638 -0.483599 0.875155 0.0153351
0.743899 -0.504082 -0.712796 0.824092 -0.566276 -0.014291
-0.146921 0.519578 0.717142 -0.149418 0.55014 0.821596
0.424367 -0.206596 0.763059 0.454271 -0.222697 0.86258
-0.0521964 0.697509 -0.9 0 0 -1
0.0634034 -0.000145272 0.636772 0 1 0
-0.524761 -0.730266 -0.773958 -0.614431 -0.788958 0.00450439
-0.54679 -0.41053 0.582026 -0.573646 -0.478622 0.664719
-0.739971 -0.500846 0.0887673 -0.812491 -0.567289 0.134324
-0.404511 0.790457 0.129448 -0.468831 0.871955 0.141039
0.725479 -0.101705 0.518197 0.805951 -0.115239 0.580658
0 0.200679 0.839173 1 0 0
0.678459 0.588954 -0.453637 0.74867 0.662792 0.0141156
0.277454 0.63825 -0.9 0 0 -1
0.791311 -0.425977 -0.249333 0.874908 -0.483956 0.0179588
-0.837004 0.329193 -0.793514 -0.916478 0.400011 -0.00768044
-0.666554 -0.602751 -0.393387 -0.726124 -0.687397 0.0151627
-0.879075 -0.188751 -0.481724 -0.975731 -0.218452 0.0150868
0.878877 0.188366 -0.0522414 0.973334 0.22762 0.0284654
0.658729 -0.000145272 0.333856 0 1 0
-0.608346 -0.661968 -0.17198 -0.678145 -0.734829 0.0120857
-0.64616 0.624739 -0.8052 -0.736265 0.676682 -0.00387485
-0.587578 0.455214 0.504518 -0.67994 0.512684 0.524248
-0.236729 0.238409 -0.9 0 0 -1
-0.616517 -0.653556 -0.709771 -0.678879 -0.73425 -0.000417392
0.107092 -0.724082 0.520737 0.083853 -0.823947 0.560429
-0.0428066 -0.849262 -0.9 0 0 -1
-0.590036 -0.619664 0.271666 -0.664475 -0.694447 0.276074
-0.016837 -0.33863 0.830699 -0.0187646 -0.378393 0.925455
0.480766 0.0351163 0 0 0 1
-0.0423452 -0.314174 0.840181 -0.0187646 -0.378393 0.925455
0.484052 0.757212 -0.158898 0.517918 0.855421 0.00385235
-0.148417 -0.887252 -0.613706 -0.136404 -0.990585 -0.0116439
0.250489 0.763492 0 0 0 1
-0.802879 -0.400289 0.0313166 -0.90082 -0.433503 0.0244687
0.231978 0.867504 -0.86624 0.246616 0.968878 -0.0213611
-0.86215 0.15852 0.19143 -0.965241 0.168201 0.200044
-0.852767 -0.284474 -0.488036 -0.950644 -0.309934 0.0147252
0.0987552 0.190778 -0.9 0 0 -1
0 0.720491 0.347713 1 0 0
0.323828 -0.73828 0.393731 0.36827 -0.825985 0.426762
-0.366506 -0.353588 0.740115 -0.362545 -0.405005 0.839364
0.897763 0.0351396 -0.8825 0.999075 0.0407136 -0.0138745
-0.644882 -0.259763 0.56731 -0.719428 -0.29769 0.627538
0.519121 0.631494 -0.9 0 0 -1
-0.893429 -0.104262 -0.163311 -0.988734 -0.149567 -0.00588248
0.475267 0.762309 -0.105352 0.517688 0.855562 0.00343271
-0.443912 0.0170328 0.77922 -0.4947 0.0209358 0.868812
-0.752137 0.492454 -0.214646 -0.816202 0.577739 -0.00573233
-0.695507 -0.107139 0.557497 -0.790406 -0.099662 0.604422
-0.886602 -0.105999 0.0901029 -0.98877 -0.126239 0.079985
-0.592504 0.675979 -0.240957 -0.641415 0.767178 -0.00488719
0.889804 0.00304917 0 0 0 1
-0.0127448 0.799706 -0.9 0 0 -1
-0.846325 -0.0963206 0.284686 -0.949046 -0.133879 0.285288
0.0445986 0.897699 -0.288434 0.0800101 0.996705 0.0133001
-0.842363 0.306426 0.0499427 -0.946558 0.31335 0.0764186
0.709389 -0.552214 -0.511181 0.796295 -0.60488 -0.00592808
0 0.451255 0.250301 1 0 0
-0.522737 0.731025 -0.697071 -0.589018 0.808085 0.00751645
0.614807 -0.65626 -0.100003 0.650259 -0.759569 -0.0147526
0.638233 -0.631236 -0.9 0 0 -1
0.617703 -0.651438 0.00884917 0.693999 -0.719806 0.0156148
-0.134821 0.755807 -0.9 0 0 -1
0.264366 -0.859012 -0.893667 0.2832 -0.95903 -0.00767502
0.89843 -0.0231608 -0.82553 0.999956 -0.00872416 0.00338385
0.759376 0.480513 -0.396192 0.838733 0.544305 0.0161232
0.87945 -0.188406 -0.51509 0.969586 -0.244743 -0.00196424
-0.00991273 -0.89945 -0.622841 -0.039412 -0.999161 -0.0111696
-0.619065 -0.482693 0.434666 -0.665723 -0.557975 0.495455
0.828062 0.350711 -0.663723 0.905647 0.424014 0.00392029
0.291884 -0.849841 -0.855146 0.316181 -0.94863 0.0114448
-0.263712 0.494981 0.700502 -0.29153 0.542227 0.788036
-0.733801 0.519477 -0.59006 -0.786717 0.617028 -0.0187742
-0.831799 0.210474 -0.9 0 0 -1
-0.516136 -0.73478 -0.344942 -0.569077 -0.822154 -0.0146372
0.33287 -0.111847 0.826175 0.348831 -0.147363 0.925527
-0.883684 0.140707 0.0649112 -0.986674 0.137085 0.0876451
0.36397 0.589787 0 0 0 1
-0.867188 0.235508 -0.862177 -0.960403 0.277746 -0.0219632
0.418836 -0.000145272 0.354902 0 1 0
0.628528 -0.000145272 0.451943 0 1 0
-0.278739 -0.809847 0.26778 -0.303349 -0.901713 0.308047
0.187244 0.34357 0 0 0 1
-0.0301923 0.546368 -0.9 0 0 -1
0 0.266883 0.324038 1 0 0
0.564231 -0.000145272 0.459407 0 1 0
-0.475225 -0.104179 -0.9 0 0 -1
-0.479014 -0.760127 -0.658686 -0.536097 -0.844149 -0.0034851
0.639384 0.632215 -0.196166 0.724324 0.689442 -0.00496038
-0.404663 -0.108827 0.793871 -0.470899 -0.0885124 0.877736
0.264563 0.279252 0 0 0 1
-0.85631 0.272188 -0.492002 -0.958605 0.284545 0.0105014
0.117711 -0.270603 0.847923 0.101538 -0.336082 0.936344
-0.189475 -0.0889727 -0.9 0 0 -1
-0.858845 0.264745 -0.804478 -0.95101 0.309013 -0.00951994
0.522217 0.529855 0 0 0 1
0.151871 -0.00427246 0.88442 0.144149 -0.017371 0.989404
-0.126336 -0.827894 0.324191 -0.114298 -0.916719 0.382834
-0.210805 -0.824007 0.288121 -0.213232 -0.913153 0.347396
0.587711 -0.680485 -0.257785 0.633479 -0.773715 -0.00832392
-0.0208939 -0.85583 0.27012 -0.0416972 -0.949123 0.312133
-0.247688 -0.663662 0.550866 -0.279015 -0.753479 0.595332
-0.892372 -0.112242 -0.138048 -0.988734 -0.149567 -0.00588248
0.0749973 -0.303716 0.840669 0.101538 -0.336082 0.936344
0.723248 0.0905871 0 0 0 1
0.851231 0.288547 -0.147904 0.949254 0.314318 -0.0109656
-0.27947 -0.721513 0.454366 -0.331128 -0.796106 0.506527
-0.150951 0.886035 -0.83083 -0.179744 0.983703 0.00455389
0.360823 -0.346286 0.74537 0.38226 -0.370797 0.846396
0.553899 -0.708453 -0.429242 0.646548 -0.762865 0.00340037
-0.773557 -0.284445 -0.9 0 0 -1
-0.227197 -0.703992 -0.9 0 0 -1
0.745525 -0.082285 -0.9 0 0 -1
-0.175663 0.229185 0.849643 -0.167983 0.256325 0.951882
-0.75601 -0.0856403 -0.9 0 0 -1
0.00222176 0.898261 -0.307159 0.00422072 0.999947 -0.00940137
0.631397 -0.166751 -0.9 0 0 -1
0.595991 0.157045 -0.9 0 0 -1
-0.503617 -0.724294 0.167259 -0.584778 -0.785715 0.20171
-0.869796 -0.226817 -0.733416 -0.974503 -0.224375 0.000141295
-0.701462 0.0114778 0.560105 -0.803003 0.00502103 0.595954
0.64908 -0.621797 -0.478223 0.721308 -0.692469 0.014229
0.680941 -0.433185 0.392872 0.754524 -0.486417 0.440559
0.747756 0.499367 -0.655053 0.828924 0.559097 -0.0171874
-0.331694 -0.150072 -0.9 0 0 -1
-0.556758 -0.585229 -0.9 0 0 -1
0.565038 -0.370527 0.591926 0.597387 -0.399493 0.695367
-0.0960263 0.647179 0.614748 -0.141605 0.716035 0.68355
-0.266807 0.688609 0.510726 -0.312883 0.761778 0.567273
-0.536726 -0.720854 -0.844629 -0.581193 -0.813349 -0.0260488
0.540298 -0.000145272 0.445334 0 1 0
0.396534 0.80617 -0.337478 0.415001 0.909812 0.00409558
0.298053 -0.848295 -0.0244596 0.301169 -0.953567 0.0025177
0.390107 -0.000145272 0.150197 0 1 0
0.557596 -0.234336 0.66309 0.631793 -0.235829 0.738392
0 0.4679 0.455125 1 0 0
-0.411872 -0.44775 -0.9 0 0 -1
0.800429 -0.230399 0.335829 0.900168 -0.232595 0.368235
-0.163293 -0.879085 0.0892859 -0.218595 -0.966264 0.1362
0.276055 0.675659 -0.9 0 0 -1
-0.488565 0.234834 -0.9 0 0 -1
0 0.67907 0.585276 1 0 0
0.227046 -0.506607 0.705469 0.217713 -0.573166 0.789989
-0.899093 -0.0202109 -0.0652756 -0.99856 -0.0532879 0.00624784
0.790053 -0.427277 -0.882576 0.896356 -0.443079 -0.0150836
0.56528 -0.698562 -0.877853 0.657337 -0.753591 0.00304153
0.274651 -0.855556 -0.852722 0.316181 -0.94863 0.0114448
